# 3D point list with one line of data per point:
#   POINT3D_ID, X, Y, Z, R, G, B, ERROR, TRACK[] as (IMAGE_ID, POINT2D_IDX)
# Number of points: 529, mean track length: 7.23031
10677 16.7454 -2.71492 35.276 7 7 9 0.548747 5 993 14 1108 20 1876 20 1075 50 516 42 453 27 2412 18 516 25 467
11268 14.6023 -3.5459 16.8773 37 34 37 1.17022 18 1195 24 405 29 344
10679 3.65583 -4.55113 30.9617 63 42 30 0.43761 23 2813 27 3600 18 2539 25 2764
10761 14.9677 -5.56613 25.292 97 54 12 0.300377 39 209 37 868 36 793 33 1505
10680 -4.33126 -0.435519 30.5065 0 0 0 0.250835 4 3035 5 3224 14 3199
11278 15.455 -0.626146 18.7636 255 255 255 1.57696 18 607 24 638 29 1333
10681 10.8026 -4.0056 35.4323 183 114 55 2.09987 5 3360 12 3372 14 3322 20 3212 27 3783 11 2777 18 2731 25 2989
11787 5.02455 -6.36087 22.0616 198 157 99 0.607763 41 1786 46 2310 52 2378 49 1629 34 453 30 396 5 503 14 560 20 1536 27 2659 24 47 36 536 45 1489 29 42 43 1853 51 2048
10682 4.80512 -5.64424 24.2341 40 24 16 0.494191 12 1361 17 2186 32 1314 35 1463 41 1864 46 1721 52 1818 50 1219 39 1067 42 1024 49 1726 34 1522 30 1488 5 1704 14 1704 20 1602 27 2730 17 1373 5 600 37 1792 11 1117 18 1075 24 1178 36 1533 45 1557 29 1045 2 1004 6 1924 33 2174
10765 16.5105 -4.70563 24.3426 146 105 41 0.359523 49 869 37 955 33 450
10684 0.934195 -5.53986 24.409 175 126 30 1.53139 12 2129 17 2218 5 2352 32 99 9 64 5 582 14 626 20 568 27 601 11 65 18 1059 6 1026 6 2610
11276 19.9881 -0.758628 33.8795 48 42 44 0.152063 34 1076 24 622 29 542 2 470
10687 -1.98219 -5.35776 25.9817 82 47 15 0.541729 12 2147 17 2277 38 2393 32 2159 35 2290 26 1766 28 1826 31 1938 4 1376 9 1966 16 2116 40 1883 41 2596 46 2367 52 2448 44 1746 49 2366 34 2106 30 2106 5 1703 14 1709 4 1375 16 2115 34 2105 5 1702 14 1708 20 2226 27 2733 37 2428 2 1638 6 2001 6 2002
12070 13.9871 2.98474 23.2459 70 62 65 0.32627 18 853 29 758 25 1668
10833 7.92216 -5.27949 26.0588 201 177 117 0.360334 39 139 37 1873 36 735 33 2235
10688 9.05639 -3.51175 34.1335 167 108 32 0.900202 32 412 35 521 41 1077 46 993 52 1088 50 425 42 346 30 831 12 1550 30 1675 5 1907 14 1923 37 1048 11 1300 18 1285 24 455 45 919 2 1167 33 1586
11859 5.94623 -7.42185 16.5184 191 167 94 0.37027 36 333 45 402 43 830 48 1068 49 208
10690 0.883052 -0.342651 40.0983 167 129 65 0.752085 38 1958 26 1370 28 1418 4 1673 9 1516 30 1769 14 2008 27 2452 26 497 28 536 31 686 30 959 11 1388 24 569 24 1454 25 1476 2 442
14113 -12.096 -1.75161 7.5382 162 180 195 0.658632 1 1380 15 1617 21 1246 3 1430 8 1422 19 671 13 2206
13392 -10.8918 -5.6612 12.3853 130 85 10 0.84534 38 1428 1 169 15 309 3 121
10691 -2.18671 -1.66746 36.318 94 58 7 0.60776 12 551 26 415 28 456 9 467 30 873 5 972 14 1071 20 1056 23 477 27 2379 23 1404 20 1869 11 455 25 1407 2 377
10837 17.1752 -5.10969 28.3249 34 31 27 0.730277 30 2187 37 1952 11 2217 18 2143 24 1897 2 2107
10692 2.39312 -5.17989 25.6476 9 7 9 0.744657 12 2150 17 2818 9 2463 5 2385 14 2362 20 2641 27 3160 35 2305 40 2263 41 2604 46 1746 52 2464 44 1749 50 1894 39 1727 42 1653 49 2418 37 2454 11 1761 18 2109 36 2062 45 1563 33 3015
12069 17.4108 4.39053 33.7966 243 243 202 0.976998 18 854 25 950 29 757 33 1961
11348 6.1235 6.38012 36.6369 231 196 131 0.936695 18 2026 42 1464 2 1482
10695 5.18664 -4.53051 28.4147 186 148 70 0.837239 17 342 23 1188 27 999 26 161 14 823 20 793 11 270 18 304 24 324 25 141 23 38 29 262 6 1123
12078 1.94187 6.36072 27.6768 55 36 38 1.06583 24 1718 26 1660 29 923
10841 18.9972 -4.22669 33.6436 24 20 19 1.1973 30 2207 37 2015 18 1828 24 1918 25 2370
11358 19.3475 0.783261 33.5941 255 255 255 0.558898 5 2947 11 2307 24 2311 2 2197
10697 3.78753 -7.41204 16.4326 90 92 96 1.54357 34 1295 30 1235 5 2214 14 2162 20 2013 37 1551 36 1305
13919 -11.6353 -3.25921 9.28715 188 176 162 0.282782 10 412 15 655 21 345 8 528 19 445
13100 3.16338 -8.80412 8.62631 3 9 3 0.340616 43 2777 51 2611 48 2720
10702 -2.28483 -7.45058 15.502 181 158 104 0.457896 41 68 37 83 36 38
12077 5.68587 7.57726 37.0827 250 249 254 0.345615 40 964 29 891 33 2081
10703 5.52072 -7.82276 12.529 133 98 78 0.300271 34 31 37 88 36 117 43 616
12086 14.9097 -1.09737 17.034 93 94 99 1.70837 24 598 36 1067 29 1317
10704 2.37135 -7.84153 14.4913 88 61 44 0.498085 34 58 37 97 36 101 45 195 49 26 43 638 51 775 48 881
13104 -0.133828 -8.12694 9.94297 185 156 76 0.304915 43 2515 51 2625 48 2730
11939 7.17787 -6.94734 18.9702 155 127 70 0.866028 49 1581 45 1449 51 1063 48 2059
10706 6.47278 -8.07741 12.9639 104 52 27 0.464807 34 46 37 103 43 627 48 884
10707 6.22307 -7.95609 13.545 40 30 7 0.430441 34 79 37 135 36 178 43 658
10917 -0.833248 -5.63292 21.5288 183 139 52 0.451952 46 2761 37 3067
10708 1.09976 -7.57373 15.5683 143 93 57 0.396652 20 73 37 150 36 140
13402 -10.7737 -5.07546 12.1274 205 157 64 0.231014 10 1211 1 226 3 1135
13099 -4.14631 -7.97812 11.0654 200 174 107 0.509188 43 2033 51 2610 48 2272
10709 -1.93101 -7.25678 16.489 190 170 110 0.335129 41 169 37 157 45 190 51 843 48 932
12085 18.3521 -1.67265 28.8959 150 102 41 1.69201 18 1876 25 2007 42 1274 29 1301 2 1778 11 2270
11428 8.45235 7.19009 36.1649 255 169 121 0.34309 11 1636 12 1995 18 1616 25 1764
10711 6.15343 -7.81482 13.839 71 40 12 0.456833 34 1212 37 167 36 212 43 697 48 950
12094 13.995 3.26983 19.9823 137 186 235 0.185546 24 2081 29 1519 33 2577
10921 6.2151 -7.98916 13.0898 111 74 22 1.46883 34 2905 37 3167 36 2650 45 2508 49 2920 43 3007 51 2961 48 3045
10712 6.3292 -7.78802 13.9114 128 82 22 0.406333 34 119 37 172 43 707
13119 -4.51221 -7.35874 15.6729 89 80 4 0.608913 46 2615 52 2680 51 2705 48 2454
11438 14.4787 4.88632 33.4514 255 255 255 1.61237 11 2048 12 1916 18 1563 24 2066 25 2195
10713 5.52578 -7.82747 14.6624 142 89 38 0.617398 20 41 37 182 43 717
10718 -1.68203 -7.11702 17.173 224 206 166 0.417246 41 223 37 220 36 176 43 755 48 980
12093 13.995 3.26983 19.9823 137 186 235 0.185546 24 2080 29 1518 33 2576
11436 -2.11824 4.35092 35.3775 90 92 93 1.64099 11 1545 17 2017 25 2161
10719 2.96556 -7.53153 16.1083 84 72 56 0.484492 41 103 37 241 51 884
10865 6.92608 -6.72442 20.7862 45 36 28 1.20348 27 2622 37 2374 36 2006 43 2422
10720 10.7674 -8.12406 13.7535 97 49 21 0.687654 30 44 37 253 36 296 45 374
11382 8.54545 6.91865 36.2585 138 99 86 1.70523 18 1605 24 963 32 1987 35 1245 26 1625 50 972 39 1581 42 1487 24 1677 11 913 25 1059 29 1545 33 2606
11891 13.8054 -3.7765 15.3599 124 132 130 0.913783 36 838 45 845 33 1542
10722 -2.34833 -6.79205 17.311 209 163 78 0.337504 41 277 37 259 36 206 45 253 46 228 43 797 51 912 49 89 52 1552 49 1380 48 1006
13424 -11.8727 -4.10774 8.40769 194 148 68 0.457928 10 1299 1 335 15 1433 7 278 3 419 8 1253 19 1115 13 606
10723 -1.35424 -7.07215 17.5721 186 128 27 0.363934 41 254 37 264 36 219 43 795
10869 13.7749 -6.47966 21.4347 86 51 17 0.208258 49 1745 37 2427 43 2459
10724 5.42644 -7.70065 15.7623 169 103 52 0.349775 34 194 37 266 36 265 45 334 43 777
10725 4.63363 -7.47836 16.7399 176 145 97 0.44646 34 226 37 298 36 302 45 357 43 818 51 938 48 1051
11380 14.4463 6.3526 34.1328 105 73 66 2.22 35 2677 24 2091 39 1584 42 819 50 969 29 1894 33 2937
10727 11.3179 -7.81454 15.2847 89 46 3 0.49018 30 151 37 344 45 452
10873 7.95642 -5.73187 24.253 61 35 23 0.726259 32 2105 35 2287 37 2450 34 576 36 2066 45 1574 29 1065 33 3021
11390 16.9114 -3.74881 34.6942 42 36 15 0.209616 20 996 27 1342 25 369
10729 11.4017 -7.73857 15.4636 88 50 17 0.718246 30 167 37 365 36 396 49 277 45 470
11899 4.05688 -2.68406 39.2576 86 55 0 0.385006 36 965 40 421 45 948
10730 11.5187 -7.72355 15.7254 93 52 8 0.740096 49 286 37 377 36 409 45 479
10877 1.17933 -3.46029 35.5045 150 123 71 0.25858 31 2035 37 2552 29 1729
10732 0.510624 -6.88457 19.3081 94 74 46 0.402871 41 361 37 381 36 346 43 878
13951 -13.1791 -2.65167 4.70681 117 139 160 0.271609 1 522 15 819 8 696
10734 2.40248 -6.8788 19.051 176 144 101 0.342985 30 230 37 409 6 753
11388 0.462097 -3.35061 36.3415 81 34 18 0.494988 11 393 12 423 20 929 25 348
10735 7.06134 -6.95715 18.0819 228 207 154 0.683457 34 334 37 450 36 448 43 928 49 1562 48 1152
10817 6.72995 -6.76649 20.6855 132 112 83 1.60481 30 1368 37 1694 24 1067 36 1439 43 1811
10736 -0.985725 -6.32708 20.5565 169 131 53 0.525029 41 492 37 451 36 398
11334 6.76189 7.91319 34.6351 0 0 0 1.01315 39 1618 42 1533 33 2645
10737 12.3094 -7.51701 18.089 176 143 86 0.731378 34 359 37 480 36 486 48 1172 51 1047
11843 -0.91086 -7.2406 17.7202 91 67 44 0.359136 36 221 41 237 45 270
10738 5.0351 -6.6652 20.3873 105 87 69 0.49 34 399 37 515 36 480 45 527 43 985 48 1211
10740 3.63128 -6.091 22.9907 62 53 39 0.665951 46 580 37 607 43 1074
13434 -11.6227 -3.69624 9.42951 168 154 114 0.376004 10 346 1 371 15 587 7 308 21 277 3 455
10741 8.04468 -6.26479 21.1618 113 69 6 0.557417 34 470 37 613 36 565 49 470 45 611 43 1069 51 1166
11332 13.2605 4.70294 23.3894 50 35 35 1.01205 42 1509 24 1701 25 2247 2 1530
10743 14.4662 -6.07484 18.3184 55 32 21 0.528163 49 591 37 654 45 676
10825 14.6725 -6.23471 21.0276 65 48 29 0.718815 34 1532 37 1793 36 1548 45 2107 29 1068
11342 11.979 -4.88243 28.2612 179 130 60 0.696742 27 3208 24 1885 25 2339
10745 11.8665 -6.26374 21.9808 162 126 82 0.366529 39 22 37 684 33 1361
11851 5.87956 -7.45772 15.5906 253 218 120 0.389455 49 177 45 358 51 926 48 1040
10746 0.153854 -5.17753 25.4884 62 34 19 0.92561 31 188 32 185 37 716 24 143
10829 15.0912 -5.68523 20.2385 31 24 16 1.42074 30 543 49 1802 37 1819 24 231 36 1580 45 1608 29 198 29 1093 33 2244
10748 -2.12006 -5.09664 26.9523 52 23 6 0.411711 32 237 40 93 37 725
11340 12.9502 -5.07133 27.6856 65 32 17 0.578363 18 1776 27 3201 29 1713
10751 15.141 -6.28606 22.1751 107 65 25 0.498188 34 579 37 739 36 664 45 715 33 1430
10753 15.0814 -5.98725 20.6962 36 28 23 1.23538 42 1082 37 743 36 1563 29 169 2 25
11698 6.4357 -7.41294 14.9361 201 172 130 0.472106 37 2723 36 2281 45 2306 49 2253 43 2669 51 2445 48 2865
10755 3.04635 -5.08691 26.104 183 152 80 0.753819 9 107 20 684 37 788 33 1370
12215 3.97842 -5.04128 27.1225 76 38 7 0.235777 11 202 12 221 14 753 6 1074
10756 13.5439 -5.81895 24.2995 77 50 22 0.813285 39 1137 37 809 36 1591 45 1613
11706 16.0173 -3.99413 21.7444 53 38 37 0.629588 37 2904 36 2433 45 2440
10763 17.2439 -5.3416 27.6435 133 94 35 0.433232 34 769 49 844 37 938 29 308 33 1538
12223 2.20312 -8.16175 13.0341 190 143 69 0.32891 45 1126 6 1531 43 1479 48 1760
10764 17.2439 -5.3416 27.6435 133 94 35 0.433232 34 770 37 939 29 309 33 1539 49 845
12217 -7.67431 -4.89354 20.8488 63 46 31 0.650131 4 124 9 182 32 152 6 1124
10766 17.5306 -5.10039 27.7272 93 60 29 1.27358 34 796 37 964 30 743 18 328 25 143
14211 -12.6511 -2.17671 5.9634 169 182 190 0.766892 1 1844 15 2100 7 1166 21 1701 3 1424 8 1799 19 1289 19 1669 13 2200
10768 17.0958 -4.37122 26.0551 152 106 46 0.304284 49 938 37 994 33 1580
11650 15.8397 -2.15272 35.671 139 109 45 0.78346 24 1443 37 2611 36 1758
10771 18.4369 -4.72033 31.0973 69 41 19 0.986233 5 859 37 1011 11 342
12167 7.20764 7.23228 36.8117 75 42 43 0.200885 42 1494 2 1513
10772 11.9414 -3.99334 30.6708 131 83 42 0.385866 34 859 37 1014 29 364 33 1575
10773 17.3219 -3.7707 25.7715 40 29 26 1.22992 30 825 39 396 37 1037 18 410 25 1319
12161 -2.23543 -5.16728 27.4984 61 31 11 1.17842 12 214 16 2143 2 1028 17 1493
10774 17.4022 -4.21324 33.3472 181 158 83 0.336903 42 375 37 1043 45 935
14229 -12.8463 -0.512525 5.00277 174 194 218 0.399006 1 1915 15 2201 7 1654 3 1875 8 1873 13 2274
10778 10.0978 -2.95908 37.2649 105 57 17 0.688387 49 1065 52 1165 37 1098 33 1623
11658 3.49597 -7.96245 13.7115 118 106 84 0.138248 37 2191 36 1848 43 2254
10779 13.7302 -3.06331 36.2726 130 95 46 0.827522 12 452 37 1111 33 1637
12175 16.8561 -0.110144 34.3339 49 33 31 0.946328 11 2283 49 2888 2 2175
10780 16.699 -2.55275 24.3901 116 91 62 1.12354 34 950 49 2027 37 1118 33 702
12169 15.12 -3.47614 19.0294 37 32 26 0.708286 11 1819 18 1795 2 1716
10782 5.295 -2.10487 39.0548 101 67 31 0.529269 17 672 37 1139 33 1636
13710 -10.5204 -6.06 13.1066 135 75 21 0.788842 16 2927 1 2310 7 1966
10783 7.67722 -2.14449 38.1729 110 69 12 0.214792 12 529 17 1681 37 1142 25 504
12113 13.6323 -4.66476 14.8147 118 67 32 0.0488714 24 2187 29 1991 33 3041
11456 15.4183 -2.35752 35.3282 158 119 46 1.22195 12 3035 27 3629 25 2786
10790 9.88307 0.0265354 37.2426 59 49 48 0.293781 41 1371 37 1275 25 632 33 781
11610 2.56373 -7.12203 18.5185 132 126 114 0.312672 52 366 36 1349
10795 -3.04639 -7.1494 14.8888 109 63 24 0.493762 34 1159 37 1344 6 663 5 89
12127 10.0484 7.70506 32.8848 250 255 254 0.647959 24 2763 29 2491 33 3427
10796 6.46969 -8.26965 12.5904 83 50 13 0.669943 49 1340 37 1348 36 1183 45 1219 43 1536 51 1707 48 1806
12121 18.1521 0.825494 34.1555 102 112 114 1.39257 11 2728 18 2658 25 2919 29 2390 5 3324
11464 9.62988 5.15305 33.5061 163 121 102 0.424988 18 2755 25 3027
10798 3.86008 -8.07602 13.8764 112 95 85 1.01019 34 1160 37 1370 36 1179 6 1552 43 1550
10799 6.76237 -8.13436 12.5592 96 51 18 0.84607 49 1355 37 1371 36 123 45 232 43 1546 51 758 48 872
14243 -12.4721 -5.51731 7.38811 81 82 84 0.829444 1 2018 15 2362 7 1429 21 1523 3 1670 8 2007 19 1532 13 2416
12498 -10.7809 -0.654506 11.1651 252 239 187 1.50847 16 3366 10 3065 1 2709 15 3067 7 2394 21 2617
10800 5.03956 -8.05261 13.4309 92 53 18 0.469665 34 1165 37 1377 36 1191 45 1897 49 2188 43 1556 51 2368 48 1828
12193 -9.7224 -7.05197 15.0127 148 110 54 1.94079 41 85 6 814 15 64
11472 0.0132858 -7.81255 14.4201 194 142 80 0.190769 37 31 36 27 45 91 43 588 51 717 48 820
10806 6.16764 -7.90472 13.7545 38 27 24 1.08865 34 1918 37 1441 36 191 43 681
14261 -11.5745 -4.0339 9.05569 255 244 200 0.395391 1 1748 10 1957 15 2408 7 1486 21 1932 3 1715 8 1688 19 1855 13 2457
10810 2.35483 -7.42917 16.5137 103 83 61 0.313045 41 145 37 1516 51 901
11690 5.26918 -7.96964 13.2116 105 61 24 1.26922 36 2237 43 2616 48 2827
10811 6.26638 -7.50359 14.6568 203 180 128 0.881213 49 157 37 1518 43 763 51 894
12207 -9.54622 -6.34942 15.7483 27 23 17 0.2261 16 116 6 918 15 199
10812 10.9354 -8.05588 14.5646 62 38 12 1.0256 30 93 37 1559 36 331
12201 -9.67469 -6.61479 15.3132 40 41 36 0.616945 16 74 6 881 1 49
11480 5.63274 -8.05046 12.3484 220 211 190 0.439399 37 1332 36 82 43 580
10814 -1.28953 -6.70065 18.604 29 25 26 1.42873 34 2403 41 352 37 1582 36 291 43 850
13742 -11.6201 -4.99335 9.2178 88 57 14 1.48875 10 2934 1 2500 15 2943 7 2284 3 2392 8 2566 13 3017
12505 7.33404 -5.62001 23.7384 48 27 6 0.423329 29 132 32 42 34 570 33 159
10815 11.3534 -7.79113 15.7827 98 51 5 0.599505 49 1525 37 1600 36 1379 45 1410 48 1993
10819 6.54152 -6.41596 21.7514 188 137 34 0.123261 49 1643 37 1731 36 1470 43 1860 51 2052
12279 12.5989 -6.02778 24.272 31 31 25 0.337164 34 609 30 553 5 627 14 1727 20 1617 27 2749 11 113 18 1096 24 223 29 179 2 60 39 95 42 131 36 687 33 1433
10820 6.30449 -6.26895 22.7103 56 46 31 0.79909 35 1419 49 1663 37 1745 36 1494 33 2684 43 2446 51 2074
12273 -2.63244 -7.4991 15.1311 22 20 15 0.459163 41 2318 46 2101 37 2960 34 2334 5 2159 14 2089 20 2431 6 1732 43 2246
10822 14.8716 -6.45387 19.9729 37 21 14 1.57701 49 584 37 1778 24 138 36 1537 45 1568 51 2075 11 19
11770 14.8398 -5.78809 23.5557 43 28 20 2.53913 34 651 39 1145 36 751
10827 15.1544 -5.9496 20.3587 20 16 15 0.584162 30 511 37 1808 18 89 24 200 36 674 45 724 29 166
12287 7.347 -6.08412 22.5708 62 35 11 0.476034 35 53 34 508 37 644 29 83 35 1433 36 1515 37 1770 33 2166 43 2458
10828 14.6407 -5.39093 18.207 118 62 35 0.978317 49 1798 37 1811 36 1572 45 1603 29 1088
12281 6.74991 -5.02906 25.9946 182 135 54 1.98474 12 2161 17 2241 5 1768 14 1782 11 1779 24 1852 35 2324 41 2612 34 2156 37 2479 2 1052 27 2784 11 1176 24 1240 33 2753
10830 1.00589 -4.82921 25.8305 57 32 3 0.434557 31 1284 32 1404 37 1831 29 1066
11714 3.65325 -7.78388 15.2072 83 77 77 0.155075 37 2992 36 2507 45 2288 43 2867
10835 16.7418 -5.31353 26.3583 49 32 21 1.65432 39 1197 37 1928 36 1650 45 1671 33 1527
14293 -12.1327 -1.51255 7.25018 107 143 172 0.771607 1 2177 15 2531 7 1866 21 2039 3 2081 8 2130
11563 15.714 -4.51763 21.4944 23 21 24 0.983449 42 296 36 849 45 849
10842 17.8023 -4.09078 34.2816 94 62 28 0.609318 5 1911 30 1686 34 1718 11 1843 18 1829 24 1400 25 1966 29 1240 2 1168
12233 -8.8536 -6.56844 17.3946 73 38 10 0.244428 16 2595 6 2549 1 1970 15 2254
10846 14.5469 -0.989033 35.8412 116 77 67 0.222137 49 2090 37 2112 33 2396
13774 -9.87011 -0.965825 13.771 67 81 98 0.734171 16 3320 22 2764 15 3037 7 2363 21 2583
12076 12.0477 5.8809 29.5574 0 0 0 0.256387 24 990 42 855
10847 1.59553 -7.81356 14.3857 77 69 56 0.481059 34 1161 37 2193 43 1553
10848 4.36435 -8.14918 13.7878 86 89 88 0.932169 34 1158 37 2198 36 1181 6 2279 43 1549
11666 -0.599883 -6.90873 19.06 197 181 117 0.310339 52 1612 36 1931 45 1336 43 2358 51 1904 48 1978
10851 6.66463 -7.9926 13.1926 223 196 141 1.38114 34 1900 37 2210 36 1224 43 1576 48 1855
12183 16.5954 -1.56838 22.7277 255 255 255 1.60336 11 2786 18 2700 29 2536 2 2631 33 3469
10852 3.58671 -7.87666 15.0275 112 87 65 0.810283 34 1922 37 2219 43 1603 36 1222
12177 2.71296 -4.24434 29.5677 73 38 8 0.966607 5 3065 11 2465 12 3011 2 2369 6 3224
10854 4.6881 -7.88735 15.054 170 151 114 0.223744 34 1934 37 2230 36 1894 45 1924 43 2295 48 2529
11674 13.4441 -6.39339 15.437 145 88 44 0.922484 24 1763 36 2022 45 2057 29 1626 33 2691
12185 17.9664 -3.492 28.6981 86 47 18 1.54307 18 2733 2 2700
10862 12.2848 -7.42636 17.8887 90 47 10 1.06519 30 2015 37 2354 36 1432 45 1469 49 1597 51 2497 48 2060
14307 -12.9074 -0.566295 4.69237 120 150 178 0.990957 1 2229 15 2567 7 1911 21 2080 3 2126
10864 13.958 -7.11725 17.9231 47 31 25 0.770836 49 2358 37 2373 36 2017 45 2052 33 2682
11746 -0.0954237 -7.77722 14.626 185 148 93 0.613542 37 3269 36 2755 45 2749 43 3108 51 3195 48 3298
10867 14.9325 -6.58582 20.59 32 19 16 1.41841 30 2087 37 2416 18 2074 24 1807 45 2097
12263 -0.857252 5.16452 28.9357 166 121 98 1.01953 32 1978 35 2084 26 1607 28 1684 31 1829 12 2528 17 2701 4 1950 9 2346 23 2214 11 2067 25 2219 2 1481
10868 14.9616 -6.59268 20.6406 32 19 16 1.08311 30 2088 37 2417 18 2075 24 1808 36 2056 34 2103
12257 1.88236 -3.16497 36.6578 48 30 13 0.758749 32 479 28 1310 31 469 34 872 12 2248 17 2894 4 2240 9 2051 5 1903 30 1673 14 2453 20 2721 27 3236 11 1846 18 2175 24 1373 29 370 2 1170 6 2706
10870 12.3928 -6.29773 22.9283 215 203 181 1.58466 39 1730 37 2439 33 2730
14325 -11.0452 -5.35379 11.5529 35 27 24 0.606131 10 2643 15 2656 7 1992 21 2170 3 2204
10874 12.0184 -5.86395 24.6927 222 197 151 0.800913 27 3419 37 2469 18 2111 33 2746
11754 10.0153 -8.9547 13.3229 51 62 58 2.06021 37 3273 36 2828 45 2823
10875 16.6148 -5.42602 25.7928 37 26 22 0.803146 34 2176 37 2505 29 1710
12271 2.98039 -2.58655 39.7763 160 113 38 0.606254 9 392 12 497 17 646 23 396 20 1045 27 1396 11 441 18 503 25 458 29 410 38 685 52 1182 37 1097 36 964 45 945
12265 4.4003 -5.73869 23.96 197 163 114 1.06971 12 2654 35 2762 41 3028 46 2781 52 2851 49 2746 34 2472 30 2486 5 2776 14 2734 20 2620 27 3395 37 2835 11 2153 18 2339 24 2168 36 2367 45 2378 29 1957 6 2953 32 2628 50 2346 33 2995
10878 15.8977 -3.19128 21.9966 35 27 25 1.67248 34 1716 49 1986 37 2564 29 407 33 2339
13806 -11.8902 -6.72199 9.09115 170 110 42 0.42403 1 33 15 248 3 47 8 90 19 15 7 0
10879 16.0572 -3.02741 22.1747 179 165 145 0.941857 30 2595 34 2234 49 2530 37 2572 11 2254 18 2170 24 2266 36 1725 45 1740 29 1745 2 1740 33 2813
12054 15.0036 -5.03008 28.5636 181 160 106 0.314854 11 285 29 318 33 2293
10881 16.8623 -1.79065 23.7808 55 63 66 0.644341 42 1269 37 2613 45 1783
11539 13.4936 -5.9992 15.3032 79 36 13 0.729528 24 77 36 567 45 625
10882 15.3858 -0.949094 35.5794 0 0 0 0.467189 30 1782 49 2093
14096 -13.1403 -3.21141 4.81267 99 142 182 0.858487 1 463 15 1542 7 1112 21 432 21 1187 3 1365 8 1367 13 1668
10883 2.36735 -7.91132 14.1997 63 46 42 0.199428 34 2342 37 2659 36 2220 45 2258 43 2613 51 2362 48 2821
12052 13.6342 -4.46828 14.7527 108 67 9 0.589055 24 1230 29 221 33 2254
10887 4.67025 -8.01583 14.2288 150 120 86 0.586892 34 1903 37 2672 36 1874 43 2274
12062 18.4513 1.60913 27.9547 220 201 170 0.415511 24 752 30 1147 29 644
10889 5.60615 -7.86013 14.2956 72 42 22 0.419599 5 2641 37 2685 36 1895 45 1929 43 2641 48 2523
11547 14.8274 -6.29458 19.444 104 75 36 0.226803 49 593 36 627 45 675
10890 5.74467 -7.64367 15.1213 121 74 19 1.32417 34 1957 37 2711 36 2274 43 2658 51 2430 45 1324
10894 12.2353 -7.50201 17.532 114 66 15 2.01357 37 2768 36 2337 49 2715 45 2353 51 2787 48 3095
12060 9.9631 0.396831 37.0717 0 0 0 0.443769 25 1512 30 1032
12134 14.5321 5.63127 34.4026 255 255 255 1.29736 24 2838 29 2572 33 3499
10897 13.8377 -7.23621 17.4836 45 26 21 0.422417 49 2351 37 2791 36 2013 45 2046
11619 6.89683 -6.96582 18.7142 129 71 17 1.03508 37 1660 49 1571 36 1416 45 1441 43 2391 51 1965 48 2607
10898 14.242 -6.89104 19.7548 14 14 15 0.664944 30 2748 49 1704 37 2818 24 2441 36 2032 45 2076 29 1951 33 3004 51 2530
14106 -12.732 -2.38464 5.78722 194 203 206 0.241366 1 1355 15 1596 7 1155 21 1222 3 1405 8 1406 19 1280 13 1720
10901 14.9919 -6.05595 20.6425 35 24 24 1.34405 42 2043 37 2849 36 2390 45 2114
12132 17.7287 1.30944 27.1986 141 132 117 2.22993 24 2814 29 2545
10903 13.34 -5.67882 25.6899 219 197 158 0.549595 34 2516 39 2156 37 2871 45 2135 29 2002
11627 13.7796 -6.30335 16.3638 171 122 60 0.450007 24 1112 36 1497 45 1541 29 1006 33 2168
10910 1.0485 -7.65672 15.3877 185 147 75 0.612059 34 2642 41 3220 37 2981
12140 11.0527 -6.11585 22.8299 186 140 85 0.20545 5 585 11 1101 2 18 14 1694
10911 0.903424 -7.61247 15.6574 64 56 43 1.37136 34 2646 49 3077 37 2984 36 2646 45 2646 43 3014 48 3050
14128 -12.3282 -0.766938 6.53026 162 193 222 0.338958 1 707 15 1692 7 615 3 809 8 827 19 780 13 1806
11730 -2.51487 -7.19984 15.5387 171 141 119 0.348156 37 3165 41 3458 36 2639 43 3009
10915 6.6058 -7.07597 17.7111 131 78 7 1.26716 34 2690 37 3033 36 2539 49 2960 45 2545 43 2898 51 3007 48 3090
11579 15.9874 -0.403674 20.4804 113 124 146 0.863015 37 1280 36 1105 33 1761
10922 4.34016 -7.79061 15.8604 65 66 63 0.597141 34 2914 37 3174
13631 -11.6533 -3.47672 8.45904 106 57 14 0.338869 10 1973 1 1767 15 1472 7 1059 3 1738 8 1299
12249 -8.18226 -3.39557 19.8173 114 114 112 1.37691 28 2798 32 3182 6 3345 10 2675 22 2535 1 2348
10926 6.29655 -7.15024 16.9711 135 84 27 1.43128 34 2927 37 3295 36 2774 45 2778 43 3129
12092 4.67584 6.39438 37.9926 154 136 76 0.504577 24 1651 26 1601 29 1516
10927 7.99191 -6.4237 18.6708 254 240 211 0.115914 34 2843 37 3306
12038 0.229248 -3.99431 33.0717 33 23 15 1.37431 36 831 39 243 40 281 45 807 46 1859 42 1117 49 1872 45 1652 41 1038
10929 2.27442 -7.71526 14.7699 146 120 88 0.785375 34 2988 37 3364 45 2761 43 3183 51 3201 48 3300
11523 7.89372 -6.95328 17.9889 180 152 100 0.58121 37 462 36 460 43 936
10930 8.56685 -6.38258 20.6921 212 184 141 1.10706 49 3228 37 3377
14138 -11.0536 0.509026 9.65337 155 117 44 0.342815 10 1636 15 1738 7 1289 1 804 21 1782 3 1518 19 1727
10933 16.3109 -5.21922 24.1438 58 37 23 1.11718 30 3014 37 3386 24 2717 36 2855
12036 15.6205 -2.33402 19.7595 255 255 255 0.146915 36 2911 45 2900
10935 1.84403 -7.90526 14.5313 62 52 42 0.808084 34 3019 37 3400 36 2870 43 3218 45 2857 48 3397
12046 10.0261 -6.81054 20.2066 185 171 144 0.320057 37 563 29 43 33 1278
10937 19.587 -4.42139 36.6669 92 60 26 1.48165 39 2725 37 3425 36 2861
10938 0.922842 -6.4145 22.1061 115 84 38 0.951619 41 3753 37 3441 36 2904 43 3255
12044 -2.916 -6.98 15.5538 224 181 71 1.8496 41 3465 45 2639 43 3011
10943 -1.30895 -3.48635 34.0945 212 184 117 0.524231 30 1636 35 1669 12 397 17 527 38 626 32 448 35 491 26 283 28 324 31 452 4 299 40 329 41 1085 46 936 52 1054 44 319 50 335 39 276 42 238 49 841 34 815 30 777 5 853 14 933 37 1977 11 364 2 281 6 1291 47 243
11603 -1.0824 -6.85671 18.6292 113 68 1 0.745573 37 1572 36 1312 45 1320 46 1496 48 1973
10946 1.7484 -7.05636 18.415 90 67 45 1.2586 37 2301 41 2927 46 2691 30 1983 5 2243 14 2201 20 2522 36 2288 37 2735 6 2466 43 2688
14160 -12.5894 -5.83192 7.15202 48 37 24 0.596001 1 1652 15 1903 7 1419 21 1505 3 1656 8 1637 19 1517 13 1988
13345 -5.36864 -8.25101 10.7212 159 111 9 1.44274 43 2486 51 2577 48 2955
10947 14.5327 -5.02832 28.3582 102 84 41 1.26069 34 2554 39 2183 39 2408 50 2684 42 2312 37 2896 36 2420 45 2602 33 3063
12116 17.2748 3.04659 34.0865 103 83 70 0.0765678 25 2684 29 2118 2 2238
11301 14.0322 4.12974 23.1227 199 151 145 0.693349 18 928 39 892 24 950 25 1729 33 2032
10951 1.26901 -4.80193 27.8894 94 50 17 2.48024 38 2874 40 2585 37 2868
12126 8.35598 3.34354 36.8206 24 22 23 1.22009 12 3328 29 2473 2 2653
10953 12.0721 -6.47062 21.7716 203 173 118 0.195675 27 1968 11 27 18 40
13663 -10.5753 2.84007 10.6895 149 129 135 0.239665 10 2246 1 1950
12332 -10.8617 -3.75357 12.0605 188 146 64 0.598086 16 1509 10 333 1 356 15 540 15 1421 7 273 3 396
10958 15.4876 -5.50216 27.2938 190 163 86 0.493726 30 693 11 235 25 67
11309 9.97503 8.26954 33.8257 185 121 94 0.443407 32 2032 24 1054 29 1601
10959 16.5473 -4.92918 30.4444 159 117 59 0.593827 5 821 37 983 11 315 18 361 25 1295 2 244 33 1563
12336 -10.6553 -3.28436 12.095 109 80 28 0.484875 4 243 10 383 3 445
11683 15.1448 -5.07591 19.268 24 22 23 1.66457 37 2473 36 2108 45 2139 49 2801
10962 11.4785 -3.6041 35.5727 129 82 54 0.979538 27 1293 11 408 18 451 24 466 25 364 29 397
10963 3.81862 -3.19698 37.6044 167 120 27 0.189329 27 1278 11 413 18 454
14170 -12.7171 -5.23856 6.6133 42 39 34 0.421559 1 1698 15 1937 7 1444 21 1548 3 1211 8 1670 19 1554
12331 -10.8235 -3.84876 11.8792 197 153 53 0.619806 16 1498 10 316 1 344 15 1410 7 259 21 1057 3 387
10965 17.9148 -1.9641 27.6896 166 134 89 0.446594 30 937 11 480 18 551 25 1401 2 412 18 1343
11326 13.9531 3.75223 23.2811 61 37 44 0.325496 18 1577 24 1654 25 1715 29 813
10968 11.933 -0.306527 36.6835 100 97 94 0.192199 30 998 11 560 29 538 2 476
12351 -6.21656 -0.884314 24.4997 51 35 24 0.175036 12 590 14 1060 16 751 10 549
12206 -9.94874 -6.1922 14.7552 166 105 76 0.408582 16 124 6 915 1 93 15 232
10969 -2.4133 0.259195 35.6945 160 141 100 0.315563 17 909 23 619 27 1580 11 561
10974 17.4328 0.990232 34.4384 251 254 242 0.866638 30 1096 11 637 18 1439 24 705 25 1553 29 608 2 564
12204 -9.87555 -6.38071 15.1189 175 117 56 0.571919 16 105 6 907 1 73 15 1209
11325 14.1731 3.06164 23.0702 247 255 255 0.738153 18 1545 24 1629 29 1485 33 2531
10975 -1.83726 2.0646 36.6635 237 206 152 0.470031 23 719 11 653 25 1565
12150 0.111656 -2.43485 40.1503 44 25 18 0.725628 14 1056 18 501 20 1037 2 358
10977 1.03382 2.5401 39.9098 73 65 50 0.812715 38 1095 11 675 18 729 24 711 25 754
11635 14.1018 -4.97682 16.2296 74 37 18 0.687005 24 218 36 1577 45 1611
10978 16.4942 2.11094 34.4203 92 95 102 0.539816 30 1139 11 694 18 743 25 1589 29 1402
14192 -12.246 -3.48153 7.54253 83 70 68 0.482474 1 1769 15 2028 7 1513 21 1621 3 1751 8 1730 19 1607 13 2106
10979 -2.1656 2.80252 35.8951 69 75 87 0.126302 23 784 11 701 25 777
10981 13.6365 2.74711 35.382 174 147 120 0.960651 39 710 11 719 24 758 25 1603 33 1854
12148 2.87809 -3.36639 33.3718 92 45 0 0.321064 5 879 9 1380 11 385 12 402 14 968 2 303 6 1271
10983 7.55318 3.72097 37.3323 132 95 79 0.32534 32 950 11 740 18 775
12158 -0.743874 5.41375 29.8734 186 132 104 0.892318 12 1143 17 1283 2 784 9 973
10985 12.8571 4.61631 35.4396 232 220 178 0.234358 50 880 11 795 33 1951
11643 15.181 -3.27199 19.8456 46 42 42 1.8359 37 2555 36 1707 45 1729
10986 7.92493 5.17725 37.0902 198 183 115 0.397937 26 791 11 820 18 873 24 853 25 968 29 763
13695 -11.7073 -1.83601 8.62895 66 65 62 0.392107 10 2481 1 2163 15 2507 7 1853 3 2063 8 2112 13 2802 15 2753
10990 13.2512 6.26346 34.9296 249 231 246 0.239055 12 1136 26 848 11 874 18 926 24 938 25 1043 33 2033
12156 -2.5395 2.27298 34.516 49 60 53 0.197747 5 1254 9 728 12 863 2 581
10991 0.354571 5.98304 32.777 201 154 125 0.499219 23 999 11 879 18 933
12102 4.78697 -6.41562 21.5571 68 46 24 1.83287 30 1386 37 2386 29 1617
10993 4.38942 7.09164 37.8209 163 80 61 1.01964 42 797 11 893 24 943 25 1053
11587 3.3526 -8.26147 13.6065 90 89 89 0.292825 37 2159 36 1146 43 1524
14202 -11.7621 -2.54563 8.57165 152 107 39 0.848418 10 2024 15 2059 7 1540 21 1651 3 1359 8 1755 19 1217 13 2140
10997 -0.200667 -5.87483 22.6564 143 105 50 1.81996 27 2665 30 395 24 23
12110 14.3277 6.26374 34.4424 255 255 254 0.38266 24 2381 29 1885 33 2932
11001 14.7272 -5.32376 18.4861 122 63 37 0.933648 37 1820 11 1114 36 1584 29 1100
11595 4.57331 -8.01791 13.923 145 134 128 1.72338 37 2207 36 1198 43 1566
11002 -0.407547 -5.66262 26.0313 136 91 44 1.85799 14 634 27 634 11 1115
11006 -0.75286 -2.62574 39.1551 33 28 24 0.178066 27 2366 11 1319 25 1386
12108 18.6266 3.36437 33.5617 235 223 201 0.605067 18 1983 29 1830 25 2147
11007 19.8068 0.178807 31.9784 251 254 250 1.15608 30 2826 11 1432 18 2219 25 2655 2 1306
11959 2.5649 -7.58446 15.0657 99 91 85 0.65568 41 2855 45 1916 43 2644 51 2399 48 2519
11012 15.9774 -5.54117 25.1466 36 27 25 0.57219 30 1577 11 1781 18 1750 24 1282
11953 2.77231 -8.12743 13.2966 177 157 128 0.290518 36 1819 45 1863 43 2222 51 1686 48 2456
11014 17.5771 3.14189 34.0148 255 255 250 1.04758 42 1382 11 2003 18 1974 24 1576 25 2481 29 1426 2 1886 33 2879
11961 4.02547 -7.48923 17.1181 104 114 117 0.879617 37 2280 45 1955 43 2339 51 1871 48 2556
11022 9.92554 -2.66224 37.3758 128 96 61 0.710445 26 2524 11 2483 25 2627 33 3198
13955 -10.6148 -1.28312 11.7215 229 209 173 0.615818 10 641 15 834 21 512
11024 19.64 -1.2136 33.1405 39 33 35 1.57263 30 2933 11 2495 18 2561 24 2633 25 2791 29 2366 2 2395 5 3098
11394 -1.2112 -2.32533 37.5738 89 59 23 0.645487 18 481 20 1018 25 445
11027 9.78158 -6.16661 22.2975 163 97 45 0.717123 5 3188 14 3261 11 2693
11911 5.16286 -8.00189 12.5243 183 148 46 1.45331 37 1341 49 1330 45 1203 6 1435
11028 8.65813 -5.87515 22.9066 84 54 16 0.35237 5 3285 14 3264 11 2695
11905 2.7675 -7.99272 13.7574 172 152 116 0.419175 36 1158 45 1178 43 1539 48 1798
11030 9.31409 -5.76146 24.3219 201 160 94 2.0371 5 3352 12 3361 14 3313 20 3208 11 2767
13973 -11.4879 -1.01602 9.15104 255 254 252 1.32408 10 1543 15 926 7 1208 21 1265 3 1452 8 760 19 695 21 572 13 1753
11034 8.57947 7.1621 33.1748 254 255 254 0.743984 26 2896 11 2816 24 2795
11402 -1.33901 3.91074 37.6585 47 61 53 0.497898 9 820 11 736 25 837 2 653
11035 18.3022 -4.49787 31.6901 21 22 22 2.38457 30 3121 11 2856 18 2748 24 2826 29 2560
11919 6.41738 -7.75411 13.864 222 205 183 0.391967 49 127 45 1297 51 845 51 1782 48 1880
11036 2.15772 -0.0507399 39.8486 38 21 5 1.41626 5 1094 23 582 26 515 11 550 25 611
11037 2.831 -5.79666 23.7494 53 40 18 1.25386 20 2203 27 1990 14 1686 30 1449 49 2370 11 1090 18 1681
11913 5.1011 -8.09501 13.0488 44 29 16 1.70857 37 2182 45 1211 48 2481
11038 14.8889 -6.52993 19.9014 40 17 8 0.83246 30 447 18 29 24 126
13454 -11.8496 -2.21642 8.27897 148 114 74 1.31717 10 537 1 531 15 785 3 626
11039 14.8889 -6.52993 19.9014 40 17 8 0.83246 30 448 18 30 24 127
11040 6.52766 -6.04209 22.8195 86 45 30 0.290774 11 39 27 543 18 44
11857 4.0652 -7.29508 17.4571 167 147 114 0.508539 37 331 49 198 45 383 51 961
11712 3.3581 -7.75729 15.179 152 120 95 0.183602 37 2990 36 2505 43 2865
11046 13.0898 -6.26151 23.3643 218 201 157 0.276351 11 72 18 104 5 596
12757 -5.41309 0.149488 27.0091 254 230 179 0.287844 17 914 22 1398 16 864
11354 15.0453 -5.81228 20.1279 52 35 21 1.54778 37 3094 24 2182 36 2590 45 2583 29 2213
11051 7.48448 -5.38648 24.62 120 72 19 0.113728 20 648 27 769 18 164
12750 -9.7243 -1.98482 13.6872 130 122 116 1.53695 16 669 22 934 15 700
11871 11.358 -7.76069 16.4649 200 160 92 0.572504 37 398 49 299 45 494 51 982
11052 13.6587 -5.86073 24.008 50 46 37 0.119981 5 651 11 136 18 167 2 84
11865 -1.74097 -6.16694 21.4278 18 14 19 0.659385 52 547 45 457 51 1091 48 1176
11054 5.70346 -5.17298 25.5674 86 57 18 0.433394 26 60 27 2111 18 189
11055 13.5891 -5.77104 24.8407 224 198 155 0.42332 5 674 11 166 18 192 2 102 12 100
13987 -12.8986 -0.989087 4.93123 114 149 179 0.205666 1 712 15 1009 7 627
12754 -7.69612 -5.36294 21.478 115 79 58 0.891362 17 2246 22 1203
11056 14.494 -5.88438 24.8895 78 42 11 0.450121 11 160 18 193 2 101
11937 6.87288 -7.01386 18.2225 198 182 146 0.511575 49 1557 45 1433 51 1030 48 2040
11728 2.83685 0.634364 39.4895 142 112 65 0.761559 52 3009 36 2627
11062 15.3531 -5.57077 25.1581 61 40 5 0.515803 11 203 18 249 5 709 2 144
11434 -1.2719 1.08409 38.8905 114 108 85 0.78948 5 1139 9 652 11 1429 12 1747 17 1861 25 2071 12 743
11067 1.27637 -4.26962 31.8534 27 22 18 0.509239 23 167 27 1059 18 331 25 210
11951 15.0649 -3.18061 19.1857 39 38 37 0.991783 36 1709 45 1730
11068 4.01635 -4.39642 31.2441 48 36 35 0.298176 27 1062 18 332 25 198
11945 -0.388634 -5.48712 23.2175 135 65 35 0.751855 36 1465 41 1856 49 418 45 1486 43 1889
11736 5.66975 -7.5236 15.2093 80 40 22 0.904594 49 3093 36 2667 45 2666 43 3024 51 3119 48 3193
11070 11.6552 -4.33104 32.1742 103 62 27 0.380903 5 857 11 346 12 326 14 947 26 215 18 390
13486 -11.638 -0.136241 8.41211 255 252 248 0.826433 10 796 1 756 15 1029 7 652 21 698 8 848 19 797 13 1820
12761 -9.2226 -4.04975 16.1138 69 66 58 0.611179 9 1991 22 1642 15 1928 7 1449
11071 17.2009 -3.83447 25.7122 104 62 40 0.450003 11 358 18 402 25 1313
11506 0.852633 -7.18128 17.7399 84 55 41 0.557345 52 301 36 267 48 1046
11075 16.2779 -4.37793 33.3868 44 39 33 0.301436 14 978 20 922 27 1241 18 425
12023 7.72849 -6.49617 20.0316 25 21 21 0.312776 36 2708 37 3215 45 2703 43 3147 49 3223 51 3235
11076 17.5014 -3.68122 26.5971 107 64 36 0.661688 11 383 37 1044 18 427 36 949
12017 0.215201 -6.71122 20.051 107 93 75 0.278649 36 2685 45 2680 43 3046
11078 17.595 -4.29583 33.1773 92 49 27 0.420458 5 897 11 380 18 434 25 1341
11514 11.2807 -7.88863 15.51 67 42 16 0.48274 37 1588 49 1514 36 383 45 451
11083 3.11493 -2.91987 38.1955 116 71 33 0.480736 27 1311 18 471 29 394
12031 3.29272 -7.86521 14.1689 118 119 114 1.71556 36 2872 45 2819 43 3221 48 3367
11084 17.5529 -3.25196 35.0948 30 27 6 0.176478 30 875 18 498 2 356
12025 14.5195 -4.99969 28.6522 162 125 39 0.227411 36 2731 45 2732
11086 17.9369 -2.69342 34.6947 178 158 103 0.319553 5 1000 18 519 25 472 33 712
14019 -11.0179 -6.18018 11.5522 137 84 14 0.894443 1 1035 15 1248 3 1070
11088 2.97656 -0.610007 39.8779 50 40 35 0.117939 23 543 34 1023 18 595
11091 20.0317 -0.583109 33.9312 62 55 49 0.247921 30 1020 18 626 2 482
14037 -12.9987 -5.6786 5.84739 93 45 28 0.428825 1 1095 15 1324 7 137 15 403 3 264 8 319 19 257 13 500
11307 3.07925 8.34251 35.0868 160 104 105 0.505396 23 1742 24 1040 25 2288 29 938
11098 17.9443 3.36069 33.9536 255 255 255 1.06454 42 694 18 795 25 1632 29 708 2 674 33 994
11977 7.4134 -2.90183 37.7419 34 30 26 0.746116 35 2433 37 2929 45 2183
11102 5.35609 4.16037 37.8153 98 62 39 0.0874727 23 842 18 802 25 871
13518 -11.5073 -6.01262 10.6025 149 99 27 0.585482 10 1141 1 1048 15 1256 7 869 3 1093 8 1064 13 1257
11820 4.55505 -8.28114 12.1461 104 72 53 0.623076 36 17 45 114 43 1474 51 652 48 773
11103 12.8564 3.77885 35.2758 212 183 113 0.586606 12 991 26 734 18 807 24 809 25 875 2 677
11104 11.7963 4.14526 35.8645 240 225 188 0.0987161 32 972 18 820 25 910
11410 -0.670506 5.99723 39.129 193 166 94 0.608003 12 1100 25 1003 17 1233
11107 7.98196 4.84352 37.1059 92 90 84 0.301732 32 1011 18 847 25 945 29 742
11927 4.36868 -7.14707 17.6364 111 106 101 0.807782 36 1356 45 1377 48 1989
11108 9.47679 5.1276 36.4887 233 226 197 0.287585 35 1140 18 876 25 971 33 1072
11921 5.96733 -7.74213 14.6534 27 23 21 1.41046 36 1910 49 1433 45 1305 43 2648 51 1799 48 1892
11110 9.53568 6.96281 36.1729 202 156 140 0.540952 26 869 18 954 25 1061 29 862
11114 12.2066 -6.52141 21.5515 252 255 255 0.23711 5 1651 11 1053 18 1029
11418 18.1484 -3.43401 28.0287 33 21 21 0.862653 24 487 25 1348 2 1182
11115 5.54601 -5.97674 23.1963 87 63 38 0.236327 27 1983 18 1044 36 571
11935 11.2465 -7.75019 16.1876 186 151 108 0.506014 49 1535 45 1419 48 1999
14051 -13.2245 -5.33976 5.13907 66 47 37 0.608371 1 1144 15 1371 7 960 21 181 7 185 3 350 8 398 19 339 13 568
11120 14.0506 -4.05942 16.4416 173 172 164 0.626789 11 1174 18 1143 24 1293
11490 -0.202387 -7.50276 16.1011 157 113 52 0.139827 37 152 36 124 45 206 51 836 48 930
11123 14.6413 -3.81454 18.1094 74 59 58 0.41241 11 1224 18 1185 24 1330 29 327 24 388 33 1558 36 869
12007 1.33402 -6.61623 20.3963 153 123 95 0.529444 49 2956 52 3109 45 2542 51 3013
11124 14.6516 -3.81889 18.1246 74 59 58 0.365012 11 1225 18 1186 24 1331 29 328 24 389
11125 14.6046 -3.75832 17.8365 27 23 22 1.24587 11 259 18 1187 24 1335
12001 6.81496 -7.97816 12.6476 182 190 193 1.5624 36 2502 45 2510 43 2853 49 2639 51 2720 48 3044
14069 -11.626 -4.11532 8.95501 147 110 55 0.910412 10 1296 15 1424 7 1024 8 1235 13 1484
11130 -0.93687 -2.32518 39.894 55 40 29 0.727359 23 1382 18 1313 25 1397 2 361
11498 4.15869 -7.89082 14.5744 154 143 124 0.149664 37 139 36 161 43 678
11131 18.3066 -2.55498 34.971 104 68 23 0.522882 5 1968 11 1343 18 1334 2 1218
12015 5.44622 -7.69663 14.5764 170 126 63 0.532387 36 2659 45 2660 43 3018 51 3116 48 3185
11132 19.104 -0.902327 31.1957 58 48 31 1.02627 11 536 18 1386 25 1470 2 464
12009 -1.80499 -6.14182 22.1116 44 26 12 1.39021 41 2999 49 2961 45 2546 51 3026
11134 1.85689 4.45464 39.0486 120 83 28 1.31049 4 1886 9 1707 44 2037 18 1500
13550 -11.1963 -4.50393 10.6683 76 46 0 0.868469 10 1263 1 1194 15 469 7 981 21 170 3 1212 19 206
11135 17.9708 3.86603 33.8132 249 255 254 0.468478 42 713 18 1515 24 828 25 1653 29 727 2 698 18 831
11798 8.28557 -3.01874 37.6551 180 136 70 0.442505 35 578 50 468 42 380 37 1090 17 549 27 1365 25 416 45 950 33 1608
11137 15.0199 2.13582 17.2048 17 14 17 0.453574 11 800 18 1538 2 733
11138 5.22431 7.42933 37.5658 61 39 32 0.56584 23 2227 18 1613 25 2243 2 1512
13840 -11.1888 -5.30239 11.1779 66 45 18 0.470772 10 128 15 358 21 59 19 978
11139 12.3632 -6.4847 22.074 147 139 114 0.178639 5 1672 11 1715 18 1678
11796 14.3278 -6.12401 23.8746 249 249 210 1.52936 39 1120 42 151 37 1825 5 1726 11 109 18 1097 24 241 36 701 45 738 29 196 2 62 33 1446
11806 7.84215 -6.39775 19.8332 27 14 11 0.992765 34 438 30 374 14 503 30 1389 20 2124 27 3079 24 1084
11145 16.3966 -5.42069 26.2645 22 20 21 0.69065 30 2162 18 1771 24 1877
11291 8.87988 4.75345 36.6964 248 255 238 0.211342 11 784 18 844 24 839 12 1045 25 941
11146 17.1562 -5.27876 27.11 27 19 8 1.93054 34 2192 18 1780 24 1320 29 1170
13343 10.5603 -7.56684 17.1913 135 139 142 0.673345 49 2316 51 2478 48 2892
11150 16.0242 -4.89719 29.8791 74 72 68 0.594119 30 2194 18 1802 24 1902
11804 15.7185 -5.36396 22.0727 36 25 16 1.24627 42 2063 49 2802 34 1602 30 1550 37 2484 18 203 24 1269 36 2115 45 2417 29 1136 2 125
11151 3.15599 -3.97948 32.42 136 79 23 0.400651 23 1882 27 2858 18 1804 25 1944
11878 -1.28173 -5.56067 25.5397 56 43 31 0.649433 44 7 49 442 52 738 45 589
11153 17.076 -4.57896 32.0956 14 13 12 0.486014 5 1884 11 1276 18 1816 2 1147
11363 13.7412 -4.33932 15.2257 27 25 26 1.17959 11 2429 24 2460 29 2218
11154 15.9741 -2.87341 21.6617 45 37 35 2.17306 11 1301 18 1827 24 1409
11155 14.5119 -3.74815 35.0747 148 118 57 0.521817 5 1925 11 1847 12 2233 14 2466 20 2367 18 1839 24 1403 34 1724 29 1242 2 1177
13850 -11.5014 -5.11655 10.2554 39 28 19 0.382884 10 148 15 395 7 147 21 114 8 265 19 162 13 426
11157 11.1269 0.864369 36.8498 44 44 46 0.648489 35 1874 18 1929 2 1310
11876 1.66409 -6.23211 22.647 50 45 34 0.550636 36 500 41 600 45 539 43 1039 51 2044
11159 19.7592 1.43802 31.97 179 182 181 0.77186 30 2343 18 1949 25 2107
11886 14.5384 -4.74505 17.4629 87 52 39 0.192732 49 1843 45 789 29 237
11161 8.29419 7.15993 36.5233 75 37 31 0.473113 12 1986 26 2117 18 2048 24 2094
11371 14.7508 -6.11399 20.4232 77 47 29 0.813961 37 3314 24 2706 36 2722 49 3134 45 2716 29 2439
11162 8.29419 7.15993 36.5233 75 37 31 0.473113 12 1985 26 2118 18 2049 24 2095
11166 17.1937 -5.10764 28.3686 35 30 24 0.563807 5 2851 11 2218 18 2144 24 1898 25 2593 2 2108
11884 11.8954 -6.11193 22.9272 210 205 183 1.17803 39 56 42 1060 45 685 36 655
11167 18.988 -3.70827 32.669 36 24 24 1.57159 11 1851 18 2180 24 1412 25 2621 29 1248
13872 -11.0445 -4.45935 11.3702 35 36 28 0.463105 10 235 15 467 7 207 21 166 21 1005 3 314
11474 2.76189 -8.08889 13.4193 100 79 68 0.390354 37 1298 36 41 6 1553 43 561 48 814
11171 4.66885 7.39599 37.9015 198 162 160 0.950632 23 2567 18 2315
11828 4.5255 -8.17307 13.2198 164 115 42 0.139814 36 76 45 180 43 589 51 733 48 847
11175 15.8542 -5.14089 22.2597 94 49 25 1.21426 11 2446 18 2532 24 2468 2 2359
11323 18.3311 -1.87177 28.9544 59 43 46 1.10917 18 564 24 1455 25 2001
11178 11.8989 -3.08702 36.9769 149 101 38 1.35808 34 2877 18 2553 37 3254
13375 -2.97026 -6.97802 15.2552 0 0 0 1.69401 43 3224 51 3329 41 3722
11993 -1.1646 -5.9399 21.6734 168 129 46 1.03201 52 2819 45 2338 51 2816
11182 9.27225 -3.42063 37.1192 111 65 24 2.28071 27 3694 18 2638
11836 6.91635 -8.11087 12.4381 144 107 56 0.877797 37 1373 45 235 51 759 49 59
11183 19.6652 -0.212055 32.6511 43 37 40 0.317796 30 3036 18 2649 25 2908
11782 -0.589623 -7.70186 14.9615 182 142 88 0.885906 46 3176 52 3288 34 2341 37 2966 36 2481 45 2490 43 2851 51 3105 48 3171
11185 0.378479 5.38539 40.3807 84 66 54 1.14143 11 2668 23 2974 18 2672
11267 16.3615 -4.89004 29.0097 252 240 220 0.671381 11 303 37 972 24 403 5 812 25 1283 33 467
11186 1.41406 -5.45888 25.934 0 0 0 2.13373 11 2766 27 3740
13882 -12.1989 -4.70103 7.96532 110 96 59 0.439792 1 285 15 493 7 217 21 198 3 367 8 386 19 302 13 558
11189 18.4628 -3.85308 31.7632 101 55 21 0.957947 34 2232 30 2214 37 2577 18 1832 5 2479 11 1845 39 1847 50 2004 42 1766 49 1989 24 1923 25 2372 36 2163 45 2186 29 1245 2 1738 33 2811
11780 -2.2491 -6.94741 17.0592 205 165 108 0.61478 41 1614 46 209 52 255 49 70 37 1491 34 180 30 85 14 272 36 172 45 233 43 766 51 881 48 981
11191 -2.66598 -5.84065 22.7527 108 64 15 1.77526 17 99 16 110 37 533 46 537 52 630 43 1026 51 1139
11790 -0.640527 -7.64223 15.3551 81 61 44 0.79937 41 3583 46 3322 52 3485 34 2904 37 3270 36 2757 45 2756 43 3112 51 3198 48 3299
11193 1.14429 -6.77258 19.8041 184 110 48 0.490201 41 1703 46 1538 52 1649 49 1503 34 303 30 246 14 389 20 348 27 1773 37 421 36 384 36 1372 45 1384 43 915 51 1947 48 2022
11275 14.5695 -1.22704 16.1376 128 149 166 0.228751 11 497 24 590
11788 -2.39196 -6.81476 17.0974 74 49 25 0.779913 41 262 52 277 49 78 34 192 30 100 5 252 20 2032 36 189 45 244 43 780 48 995
11199 1.03358 -6.30403 22.0338 88 59 34 1.53166 38 2289 41 2501 46 2294 52 2367 49 2327 37 2370 30 1369 34 1418 36 1993 45 2017 43 2421 51 2520
11347 15.6007 4.12457 34.58 189 196 190 0.240743 39 1976 24 2042 25 2495
11202 16.9996 -4.54325 31.8998 21 18 17 0.87176 50 1986 39 1836 42 1755 49 2512 34 1687 30 1659 5 1885 37 2550 11 1277 18 1817 24 1372 25 2360 36 2148 45 2173 29 1734 2 1148 33 2806
13904 -12.7805 -4.19791 6.14696 90 73 68 0.312262 1 345 15 590 21 284
13601 -10.3898 -6.19391 13.4802 197 137 17 0.352987 16 2063 1 1618 7 1372
11203 1.89294 -5.39659 24.4783 225 193 133 0.40298 41 744 52 753 50 43 17 167 27 647 37 693 33 1313
11860 -2.7814 -6.34707 21.0548 38 27 22 0.35131 52 506 45 406 43 937 51 1048 48 1133
11557 4.60692 -4.46603 27.926 107 61 11 0.360289 42 187 46 836 36 794 45 784
11207 2.45167 -4.89261 27.5346 117 76 28 1.08688 40 1206 41 864 46 772 52 876 42 1065 4 89 23 7 27 884 37 833 18 238 24 244 25 47 45 709 45 1590 29 185
11870 6.86284 -6.95814 17.3673 50 24 11 0.559703 36 427 45 489 48 1131
11209 5.4978 -6.28867 22.7304 131 107 74 1.10934 46 1671 52 2386 49 1651 34 2085 30 2074 37 2400 24 1776 36 1482 29 1631 51 2068
13407 -11.3882 -4.99696 10.5544 200 159 91 0.156299 10 1221 1 250 15 1333 7 155 7 938 21 975 3 1164 8 1140 19 1023
12588 2.76909 -8.21012 12.8783 115 112 100 0.799931 45 74 43 513 51 657 48 770
11214 -1.02702 -7.14808 17.8595 225 204 162 0.759341 41 2399 46 1456 52 1553 49 1405 34 1291 30 1953 37 1537 36 1265 45 1264 6 1809 43 1680 51 922 48 1934
11868 6.48469 -7.15688 17.672 84 42 9 1.32698 36 1385 49 269 45 468 43 1742 51 998 48 1117
11215 -1.99043 -6.49015 18.2651 197 151 60 0.982048 41 1681 46 1501 52 1611 49 2239 34 250 30 183 37 1580 36 1314 45 1319 43 1719 51 1899 48 1975
12592 0.479156 -7.96344 13.6059 75 66 53 1.10302 45 1117 43 523 51 660 48 768
11427 7.38229 6.97501 36.0614 75 47 42 0.3759 11 1628 12 2550 25 1751 2 1508
11218 4.08735 -6.17528 22.6865 84 65 41 1.26244 35 1406 41 611 46 1665 52 638 49 430 18 2066 34 1456 30 2073 20 2600 27 3109 37 2398 36 1468 45 580 29 992 43 1875 51 1169
11219 1.77037 -7.4159 16.6165 110 64 42 0.914356 41 2356 46 2167 52 2235 49 1421 34 1964 30 1935 20 2480 37 2257 36 1272 45 1285 43 1659 51 1830 48 1908
11220 3.0124 -6.30768 22.1404 93 68 52 1.15022 41 2502 46 2305 52 2373 49 2339 34 1434 30 1391 5 495 20 1533 27 1913 37 1713 24 1076 36 2003 45 2033 29 960 6 901 6 1888 43 1841 51 2528
13914 -12.278 -3.68888 7.46087 165 96 78 0.343433 1 387 15 636 21 330 3 500 13 722
12587 0.012262 -7.98969 13.5644 89 63 26 0.235498 45 20 43 508 51 637 48 751
11221 1.84629 -6.95385 18.637 109 79 45 1.80405 41 3607 46 3335 49 3207 34 2926 30 2986 14 3233 37 3294 36 2771 45 2673 6 3295 43 3131 51 3221 48 3314
11940 3.07415 -6.35028 21.5963 94 80 56 0.749109 52 1736 45 1467 49 1593 51 2027
11223 -2.60255 -6.79303 17.1519 200 162 80 0.910883 41 2920 46 2670 52 2736 49 2638 34 1965 30 1943 5 1453 14 1450 20 1349 37 2710 36 1888 45 1913 6 1835 43 2662 51 2437 48 2543
12607 -2.19643 -7.52578 15.1692 240 191 74 0.219541 37 1334 41 37 43 609
11950 14.8752 -3.42445 19.0512 43 41 41 1.57036 36 1699 45 1718 33 2329
11225 2.64017 -7.37596 16.8314 132 78 53 1.78974 41 3473 46 3207 34 2919 30 2980 5 3263 14 3223 37 3179 36 2664 45 2520 6 3382 43 3027
11230 6.50789 -6.05969 22.7877 105 51 21 0.771088 35 2748 49 2381 12 2623 34 2094 30 2084 5 2334 14 2716 20 2608 27 3126 37 2409 11 2133 18 2077 24 2149 36 2037 45 2069 29 1644 33 2989 43 2453
11948 13.4804 -5.95491 15.0017 137 66 25 0.0579957 24 74 45 1542
11581 1.9019 -8.0197 13.645 65 55 48 0.323373 37 2152 36 1128 45 1860 43 1514 48 1782
11231 7.73365 2.36079 37.7093 46 46 45 1.84724 32 3074 39 2455 11 2531 18 2459 30 2661 11 2325 24 2320 25 2673 2 2417
11894 14.2076 -3.64505 16.59 35 35 40 0.569 36 866 45 880 29 326 33 1555
11233 17.3993 0.991033 34.361 250 254 248 0.724706 30 1095 11 636 39 655 42 614 49 1277 5 2115 18 1438 24 704 25 1552 29 607 2 563 33 1802
11379 3.50847 -6.24768 21.9601 140 115 77 1.44297 5 1617 20 2154 41 2991 34 2073 30 2060 37 2810 24 1759 36 2354 45 2360 29 1615 6 1883 43 2738
11234 14.5319 -5.68953 25.6809 152 136 121 0.867186 39 197 42 208 34 694 30 646 37 860 11 197 18 242 36 777 29 245 33 1494
13936 -12.655 -2.98393 6.16105 114 115 119 0.813377 1 471 15 742 7 418 21 429 3 590 8 627
11235 12.0835 -4.81531 28.9118 32 16 15 0.864073 39 1205 42 261 12 250 34 782 30 731 5 794 14 861 20 1756 27 2227 37 954 11 287 18 325 18 1220 24 371 25 1275 36 847 45 836 29 302 2 222
11237 13.555 -6.46837 21.7577 83 45 29 0.614475 39 1079 42 1052 34 533 30 469 5 552 37 678 11 35 18 1054 24 147 36 631 45 669 29 119 33 1371
11892 14.0421 -3.70879 15.6415 42 34 41 0.677665 36 850 45 864
11239 19.4849 -3.77356 33.5222 31 23 24 0.873651 39 1851 42 1769 49 1995 34 2237 30 1703 37 2582 36 2167 45 2191 2 1183
11902 3.85621 -0.586055 36.1315 0 0 0 1.72486 18 589 23 530 27 1570
11241 13.823 -6.32852 22.6004 30 24 17 0.787552 39 2535 42 2432 49 2992 37 3091 34 2485 30 2493 5 2775 11 2152 18 2350 24 2177 36 2585 45 2578 29 1984 33 3181
11387 4.23942 -3.85274 34.9061 141 77 30 0.35003 20 906 27 1185 25 307
11242 2.62651 -7.56834 15.6868 177 134 83 1.30375 41 1517 49 1389 34 1241 30 1917 5 2190 14 2607 20 2466 37 2237 36 198 45 278 6 2380 43 732 51 864 48 971
13439 -11.6517 -3.52325 9.31272 165 153 102 0.614871 10 364 1 390 15 616 7 329 21 307 3 484 8 506 13 1557
11246 13.9548 -6.61346 21.3491 44 30 20 1.29413 30 453 5 1652 11 1054 18 1034 34 1504 37 661 24 130 29 112 29 1050 33 1359
11900 17.4265 -2.01272 26.4067 53 52 50 0.345156 36 1032 39 498 45 1029
11247 7.15629 -5.28937 26.188 157 120 67 0.391432 5 1761 12 2152 20 2260 18 1736 17 2226 27 2779 2 1664
11331 13.2602 4.71072 23.3868 50 35 35 0.908071 42 1508 24 1700 2 1529
